# .PCD v0.7 - Point Cloud Data file format
VERSION 0.7
FIELDS x y z intensity
SIZE 4 4 4 4
TYPE F F F F
COUNT 1 1 1 1
WIDTH 1213
HEIGHT 1
VIEWPOINT 0 0 0 1 0 0 0
POINTS 1213
DATA ascii
9.9335823 -1.657887 -0.77067852 5.75
10.037813 -1.6576278 -0.72781289 9
10.236645 -1.6419041 -0.7794739 150
10.305536 -1.6407098 -0.76045865 81
11.250591 -1.626388 -0.77221584 63.200001
11.354423 -1.6275411 -0.76078862 73.125
11.451056 -1.66565 -0.77751082 67.428574
-2.0955601 -1.5778269 -0.7844969 150
-1.9709545 -1.5519831 -0.77343655 0
-1.8550522 -1.5411774 -0.79944533 84
-1.7099462 -1.5975931 -0.78051311 62
-1.6650264 -1.5297681 -0.79536134 27
-0.34149271 -1.5126514 -0.74959612 15
-0.23490977 -1.5423026 -0.74382949 94.5
-0.13698021 -1.5369928 -0.74965394 28.25
-0.086447991 -1.5417184 -0.76418871 2.6666667
1.8703407 -1.5377914 -0.7885325 3
2.1585975 -1.5730118 -0.74864596 55.285713
2.2592475 -1.5375258 -0.76005554 11
2.3443835 -1.5471053 -0.74161822 85.090912
2.4120667 -1.5457282 -0.72772604 83.333336
8.1774712 -1.5157833 -0.71824473 35.599998
8.25595 -1.5323641 -0.74500924 34.361111
8.345129 -1.5590404 -0.76017082 27.580645
8.4489012 -1.5580493 -0.74461168 79.720001
8.5080585 -1.5189854 -0.7720049 42.799999
9.9716787 -1.5687405 -0.78400046 5.5
10.05318 -1.56532 -0.76324791 6.5714288
10.116576 -1.5137255 -0.73364663 8
10.353854 -1.5607548 -0.7124337 8
11.163402 -1.5244747 -0.75266904 150
11.245573 -1.5553458 -0.74973273 95.666664
11.335401 -1.5850264 -0.78982943 99
-2.1344128 -1.4058601 -0.71762967 7
-2.0516753 -1.4442618 -0.72279942 8.3846149
-1.9660723 -1.4234711 -0.74808526 3.5
-1.8391393 -1.4161762 -0.74974686 9.666667
-1.7684108 -1.4350322 -0.78472531 8
-1.6307045 -1.4408078 -0.74481523 7
-1.5304134 -1.4416906 -0.7847054 8
-1.3271127 -1.4277412 -0.77460319 68
-1.1545779 -1.4413249 -0.76566428 66
-0.91480798 -1.407248 -0.70001817 57
-0.50496572 -1.4020492 -0.70715177 8
-0.43033439 -1.4430126 -0.7434662 18.333334
-0.35840836 -1.4612042 -0.74049109 19.125
-0.24211845 -1.4434205 -0.74413651 21.071428
-0.15953775 -1.4683762 -0.74946219 24.25
1.4512737 -1.4452009 -0.76504445 10.6
1.5525097 -1.4355973 -0.72272629 7.7272725
1.6080134 -1.4511874 -0.73853773 7.25
1.7742559 -1.438125 -0.73014516 3.7142856
1.8472687 -1.4092363 -0.74662989 1
2.1763508 -1.472931 -0.78125685 3
2.2439387 -1.4375954 -0.7551077 9.818182
2.3668003 -1.4610895 -0.76267809 49.53846
2.4406564 -1.4287976 -0.74192411 52.526318
2.5553386 -1.4347049 -0.75053692 51.090908
2.6245606 -1.4135202 -0.74477381 68
2.7062747 -1.4045023 -0.73046231 4.5
3.3156443 -1.4102739 -0.73649776 1
3.4514003 -1.4140167 -0.73218083 23.1875
3.5107746 -1.432868 -0.70658964 5
8.0720119 -1.438343 -0.73293537 30.333334
8.1544075 -1.4486771 -0.74340409 40.52
8.2384834 -1.4716394 -0.76486945 23.777779
8.3121262 -1.4919038 -0.77573639 13.666667
8.4896669 -1.4855504 -0.76635361 82
8.5321598 -1.4463406 -0.75327855 60.894737
10.049417 -1.4656068 -0.75145847 4.75
10.122343 -1.452246 -0.75323522 76.5
11.07099 -1.4413484 -0.74036092 76.714287
11.141047 -1.4647992 -0.74794161 68.400002
11.204978 -1.4690529 -0.78769946 18.666666
-2.1380699 -1.3475462 -0.70642799 4
-2.0871303 -1.3672143 -0.72371089 7
-1.9576102 -1.3399624 -0.70449686 5
-1.8070287 -1.3449353 -0.72804755 50.666668
-1.5282785 -1.3375243 -0.70617503 44
-1.4162226 -1.3244044 -0.71188074 71.333336
-1.3376248 -1.3540912 -0.7506687 74.444443
-1.2765671 -1.3519663 -0.73536474 1
-1.141862 -1.3417931 -0.75351715 62.75
-0.8397786 -1.3748313 -0.79399389 0
-0.74369055 -1.3634224 -0.75170028 29.875
-0.64758623 -1.3584676 -0.74300402 15.444445
-0.53705478 -1.3668904 -0.74513566 12.444445
-0.44443932 -1.3622301 -0.74205208 4.9000001
-0.34650874 -1.3854072 -0.77610737 18.857143
-0.2571243 -1.3769741 -0.77149069 14
-0.1873589 -1.3909355 -0.73974389 7.6666665
1.270198 -1.3877879 -0.794227 4
1.3202598 -1.3286682 -0.74778003 7.75
1.4633653 -1.3328199 -0.75460398 4.125
1.5466529 -1.3522655 -0.73481315 6.2857141
1.6218491 -1.362538 -0.73517632 4.5999999
1.7646374 -1.3724976 -0.70801771 1.8181819
1.8287355 -1.3659726 -0.72513682 6.8571429
1.9233143 -1.3476644 -0.74033701 3
2.2684753 -1.3727661 -0.72035789 8.333333
2.3606095 -1.3651378 -0.74326813 10.8
2.4415524 -1.3486046 -0.74165076 67.166664
2.5267367 -1.3773988 -0.7486248 33.842106
2.6461909 -1.3585521 -0.79559767 145.5
2.7143707 -1.3989079 -0.73214948 41
3.2969487 -1.3342203 -0.74944395 12
3.3466301 -1.3387053 -0.74372697 37.25
3.4497993 -1.3515363 -0.74726731 43.380951
3.5369799 -1.338927 -0.74373758 21.138889
7.9600463 -1.3486689 -0.70329535 10
8.0526695 -1.3676023 -0.77142894 55.875
8.133749 -1.3491842 -0.75190413 59.384617
8.5586758 -1.3653392 -0.75692523 79
8.6126633 -1.3424532 -0.76541388 32.400002
10.097042 -1.3657887 -0.73407209 4
10.146555 -1.348963 -0.72600234 3.75
10.206101 -1.3044496 -0.72726381 3
10.952523 -1.3467662 -0.74131387 51
11.045001 -1.376482 -0.76344365 44
11.490808 -1.3061675 -0.79466057 150
-2.9352787 -1.2034712 -0.79991752 85
-2.3554261 -1.2853497 -0.7176165 11
-1.7352034 -1.2817597 -0.70728892 14.5
-1.4539186 -1.2667592 -0.71164942 56.5
-1.3915745 -1.2918564 -0.72494954 19
-1.2866348 -1.244014 -0.70458484 0
1.2550437 -1.2283132 -0.78292727 7.5
1.3582039 -1.2370483 -0.76361036 10.958333
1.4386916 -1.2324066 -0.75523412 6.2307692
1.552284 -1.2471769 -0.73259169 6.1111112
1.6750542 -1.2559087 -0.70990008 3
1.7358544 -1.2366682 -0.72931546 20.692308
1.8871418 -1.2661268 -0.70313364 2
1.9434167 -1.2295054 -0.75874037 6.1538463
2.2974336 -1.2710041 -0.79268402 8
2.3440161 -1.2336196 -0.76567382 10
2.4734418 -1.263485 -0.75515199 60.761906
2.5542603 -1.2469319 -0.74876988 69.153847
2.6046934 -1.2230806 -0.75374907 2
3.3524108 -1.2837789 -0.76675117 25.875
3.4326777 -1.2916908 -0.79371977 8
3.544872 -1.2783824 -0.77254444 6.5555553
8.0507956 -1.2438985 -0.76014191 62.466667
8.1423759 -1.2551335 -0.7485227 64
8.5937223 -1.2670323 -0.75473964 13.5
8.6084557 -1.2889161 -0.72609299 34
9.0839539 -1.2200323 -0.73708206 2.3
9.1471691 -1.2380092 -0.74559742 2.1538463
9.2150869 -1.2516251 -0.76010215 2.2857144
10.179075 -1.2424171 -0.75224483 1
10.207619 -1.2954569 -0.7204802 6
10.522843 -1.2395179 -0.75985259 87
10.773626 -1.2152984 -0.75881994 17.5
10.855206 -1.2725431 -0.74320877 54.5
10.902134 -1.2775012 -0.78943986 52
-1.6367153 -1.1148342 -0.76951164 17
-1.3242501 -1.1313322 -0.79621685 3
1.1792011 -1.1955709 -0.77464747 2.5
1.2457529 -1.1115909 -0.77333671 3.6666667
1.3723884 -1.1667612 -0.75987482 21.3125
1.437044 -1.1462932 -0.72681069 14.434783
1.5394644 -1.173781 -0.71340615 3.8333333
1.6748934 -1.1396801 -0.72985601 7.4285712
1.740373 -1.1498221 -0.76671022 10.461538
1.8708518 -1.1290803 -0.72037113 1.2307693
1.9329544 -1.1559516 -0.74571848 3.9473684
2.3699543 -1.1485591 -0.74569428 23
2.4491105 -1.1514802 -0.72439313 17.5
2.5504394 -1.1547087 -0.75148988 73.959999
2.6310072 -1.1619847 -0.74236798 9.5
3.924149 -1.1099607 -0.76008034 3.5
6.7494087 -1.1110646 -0.72435302 73.199997
7.3629766 -1.1235795 -0.71642345 0.16666667
7.4493747 -1.1289566 -0.74422348 5.1538463
7.5091052 -1.1367266 -0.7291891 4
7.8523216 -1.118179 -0.75214636 9
7.9632926 -1.1443841 -0.77124172 30.142857
8.0484371 -1.1582812 -0.75378084 38
8.1458082 -1.1552114 -0.74978364 66.875
8.2063904 -1.154637 -0.70845675 45
8.5853434 -1.1519169 -0.77999705 127.33334
8.9646416 -1.1279705 -0.72908098 2.2631578
9.0405321 -1.1552364 -0.75003272 2.4166667
9.123702 -1.1783538 -0.77315056 2.5
10.307606 -1.1031612 -0.73924041 0
10.491366 -1.1580073 -0.74182594 14
10.577798 -1.1297011 -0.76136231 24.666666
10.661527 -1.1220617 -0.76823503 41.166668
10.72455 -1.1571094 -0.77167618 20.285715
11.625563 -1.190074 -0.7583037 141
-1.325067 -1.0776832 -0.72925377 54
1.28617 -1.0513556 -0.76006269 7
1.3267375 -1.058302 -0.72255993 5.1666665
1.4589915 -1.0411963 -0.75787252 34
1.5549661 -1.0163308 -0.74027777 4
1.6444628 -1.0386826 -0.75620556 3.5714285
1.7544907 -1.0431755 -0.76921374 1.3333334
1.835968 -1.0497887 -0.76444232 1.1
1.902975 -1.0492743 -0.74256623 0
2.4331822 -1.0384094 -0.74702805 50.285713
2.5799823 -1.0635076 -0.74785793 28.5
2.6448948 -1.0397 -0.7444433 33.099998
2.709058 -1.0242072 -0.73411465 19
3.8751621 -1.0390667 -0.73676956 8
3.9142919 -1.0517251 -0.72552484 6.5
6.5862684 -1.0448028 -0.74209481 68.599998
6.6572318 -1.0519021 -0.75038892 27.733334
6.7460895 -1.0613655 -0.75859863 48.469879
6.8115878 -1.0541402 -0.75693721 71
7.2551265 -1.0400697 -0.73419583 0.23076923
7.3484545 -1.0583657 -0.74574935 0.36842105
7.4465365 -1.0841607 -0.76169014 2
7.5202975 -1.0569066 -0.7329483 1
7.689919 -1.0333123 -0.70466697 11
7.7600994 -1.0374269 -0.70723629 6.75
7.8477049 -1.0388079 -0.71427751 20.375
7.9443588 -1.0691613 -0.73433089 24.545454
8.0247231 -1.0745071 -0.7557022 41.75
8.1563482 -1.0530311 -0.7310698 21.333334
8.2498188 -1.0022432 -0.76251513 3
8.6625328 -1.0156922 -0.73240322 73.888885
8.7443457 -1.0134708 -0.73277986 73
8.856782 -1.0411536 -0.73567909 2.5
8.9393396 -1.0651048 -0.75587153 2.5789473
9.0080261 -1.0847982 -0.79272777 2
10.39486 -1.0017116 -0.71777469 2
10.469431 -1.0564424 -0.71689588 147
10.53269 -1.0712124 -0.72613513 84
10.637631 -1.0851142 -0.78645581 60
11.716115 -1.056473 -0.70785952 141
-3.0081284 -0.94769627 -0.7304216 16
-2.9753714 -0.94355971 -0.79575861 98
-2.7914009 -0.90381223 -0.77854401 18
-1.8175482 -0.92717522 -0.71256006 4
-1.775009 -0.95552909 -0.72040606 3
-1.527627 -0.9892143 -0.7088784 66
-1.3226516 -0.94863838 -0.77572292 49
-1.1200663 -0.93813109 -0.74402189 37.333332
1.3598344 -0.95944059 -0.75841504 11.75
1.4478925 -0.9814986 -0.76473099 6.6999998
1.5500071 -0.9516561 -0.76098561 14.076923
1.6404413 -0.95929271 -0.7639733 10.558824
1.7359912 -0.96448505 -0.73744571 1.0526316
1.8343989 -0.97355705 -0.77075052 0.66666669
1.9801328 -0.93868756 -0.77917475 1
2.0189302 -0.93839979 -0.78788686 0.33333334
2.1632643 -0.93578434 -0.78055394 0.2
2.2168546 -0.91565424 -0.7667771 0.14285715
2.3383958 -0.90600932 -0.79094744 150
2.4612055 -0.95997614 -0.75363863 25.956522
2.5991721 -0.99457347 -0.7940076 7
2.6417811 -0.95416963 -0.74392593 48.615383
2.7368946 -0.93258303 -0.75156146 33.25
2.8657727 -0.90599167 -0.74118441 10.4
3.8632021 -0.97058892 -0.76637554 7.9375
3.9430225 -0.97349113 -0.74850184 9.7692308
4.0037255 -0.95277327 -0.78241676 7
6.5271821 -0.96672279 -0.75343794 132
6.6435742 -0.95334417 -0.75344896 59.083332
6.7601867 -0.95595974 -0.75797766 81.645164
6.8387957 -0.93906188 -0.74328804 106.22727
7.1390667 -0.9528622 -0.72121888 0
7.3164344 -0.97507173 -0.73174667 1.5
7.5566945 -0.94989425 -0.73721868 5.125
7.6494923 -0.91743493 -0.73311156 60.666668
7.7928739 -0.97540659 -0.72882694 152
8.1606684 -0.99826276 -0.77632302 18
8.5579853 -0.92690134 -0.75006789 54.833332
8.6300383 -0.96861541 -0.75221187 63.714287
8.7561378 -0.96943772 -0.75267494 39
8.8305016 -0.98931617 -0.7447176 2.3333333
10.261416 -0.93840051 -0.75922132 18
10.346025 -0.93933088 -0.73420119 41.799999
11.721133 -0.91508996 -0.75401372 142
-3.1059904 -0.83328557 -0.77394426 137
-3.0525947 -0.89153039 -0.78667033 90.5
-1.8394639 -0.80060518 -0.73934174 2
-1.6796507 -0.83012575 -0.7507872 1
-1.5107787 -0.82562613 -0.74643439 1
-1.4986689 -0.82864934 -0.79918146 3
-1.3834 -0.84795207 -0.74452209 62.166668
-1.1211487 -0.81456268 -0.77439725 59.5
-1.0944757 -0.83231676 -0.78464276 61
1.3670256 -0.85016274 -0.7673471 0.84615386
1.4615546 -0.83126223 -0.74923992 14.866667
1.5539304 -0.85709238 -0.76297712 9.5294113
1.6612018 -0.84081239 -0.74829638 5.6399999
1.7509969 -0.83655745 -0.74731928 3.2391305
1.8357921 -0.82803243 -0.73253775 3.6086957
1.9454361 -0.8220132 -0.71738487 2.3333333
2.0455112 -0.8493883 -0.74322581 0.5
2.1292293 -0.812617 -0.72590834 0.11111111
2.2597675 -0.84166789 -0.72623539 1.3636364
2.3224697 -0.83982253 -0.72508824 1.75
2.4852288 -0.89244586 -0.7909376 9
2.5223203 -0.85871589 -0.75137484 47.642857
2.6718876 -0.85861635 -0.75097722 48.117645
2.7468979 -0.85031736 -0.76163113 46.714287
2.8452404 -0.84586889 -0.75288767 13.551724
2.9440145 -0.85363525 -0.74927402 4.6363635
3.0131781 -0.84002793 -0.79700679 1
4.1248264 -0.85737574 -0.72779083 2
6.587019 -0.86046064 -0.75347269 130
6.6673384 -0.85301417 -0.74786389 80.375
6.7377 -0.84396994 -0.74884987 39.785713
6.8505979 -0.84702075 -0.75429761 105.09091
6.9209213 -0.82915229 -0.74594265 114.66666
7.079793 -0.85664278 -0.71186054 0.75
7.1244359 -0.82287788 -0.75012094 1.6666666
7.5927091 -0.88650227 -0.76785576 20
7.6541018 -0.86932218 -0.75566554 23.09091
7.7072773 -0.87363148 -0.76824516 80.5
8.2370415 -0.80635363 -0.79807317 120
8.4595709 -0.86675262 -0.7432003 66.333336
8.5445433 -0.8968854 -0.76285917 97
8.7514315 -0.88502204 -0.79645115 9
10.259254 -0.85987604 -0.72522217 49.599998
10.320443 -0.88002408 -0.74011517 39
-3.0391099 -0.71912074 -0.7631008 106
-2.9029834 -0.77885705 -0.70780742 104
-1.7344868 -0.77463216 -0.72670341 0
-1.6645195 -0.79806745 -0.72774178 0
-1.4582909 -0.78548145 -0.7589556 0
-1.3563139 -0.73478752 -0.72194231 2.3333333
-1.2212918 -0.7441147 -0.74647158 4
-1.1645001 -0.77309161 -0.78266501 63.5
-1.086888 -0.78081965 -0.78892201 63
1.2940294 -0.79234231 -0.79771578 1
1.3458946 -0.75426853 -0.74530792 1.7857143
1.4770005 -0.7650339 -0.74092478 16.214285
1.5404862 -0.74976486 -0.73038316 43.117645
1.6597936 -0.77065241 -0.71265709 1.2
1.7460251 -0.78727031 -0.71003687 3.4666667
1.8258102 -0.79334122 -0.70754188 2
1.9130937 -0.79790658 -0.70122349 5
2.1676033 -0.76437467 -0.7404725 1
2.2079644 -0.78700298 -0.76974118 5.5
2.3615308 -0.79587948 -0.70988953 3
2.4516556 -0.77013475 -0.71660316 3
2.5451846 -0.75682479 -0.73790628 41
2.6600537 -0.77895445 -0.75273967 35.444443
2.7336888 -0.7497384 -0.74378288 81.771431
2.8400455 -0.76336348 -0.75454152 25.576923
4.0787487 -0.74732673 -0.73763776 10.5
6.6484079 -0.79118264 -0.79396915 127
6.7477546 -0.74652666 -0.73899293 50.200001
6.8584948 -0.74513167 -0.74222267 96.285713
6.9504633 -0.75520337 -0.75424582 70.64286
7.0418658 -0.75473326 -0.74746662 4.1666665
7.668447 -0.76127785 -0.74902314 61.285713
7.7540631 -0.7274186 -0.76762569 41
7.8494 -0.72462374 -0.7756241 60.714287
7.9556885 -0.73191559 -0.7783159 49.799999
8.0366478 -0.73523158 -0.77582103 45
8.1329975 -0.75607514 -0.78493106 54
8.266737 -0.73631805 -0.7662093 87.199997
8.8050842 -0.79796427 -0.74819475 0
10.245734 -0.76326531 -0.75883472 77
10.317642 -0.78550124 -0.71526986 39
-3.002218 -0.68543679 -0.70664281 73
-2.9994318 -0.6589492 -0.77008533 72
-2.7625263 -0.60324121 -0.76256162 152
-1.3335056 -0.69316345 -0.73403609 2
-1.2832315 -0.65696037 -0.70174623 2
-1.0590659 -0.63826108 -0.74026132 7
1.3708833 -0.66986644 -0.77190709 1.0769231
1.4143091 -0.6263991 -0.72649068 2
1.5599929 -0.65096039 -0.74481422 26.714285
1.6018698 -0.60556239 -0.74541867 111
2.0750566 -0.6149103 -0.72796983 1
2.1412578 -0.64444464 -0.76002938 3.3333333
2.2566876 -0.64067906 -0.727561 3
2.3263862 -0.6418221 -0.72015089 0
2.5830321 -0.64618862 -0.76849747 36.799999
2.6645908 -0.61181617 -0.74540424 65.599998
2.758271 -0.65442616 -0.74520206 83.454544
2.8680379 -0.65123242 -0.75369942 73.35714
2.9058247 -0.64439768 -0.77243626 13
4.0829358 -0.65451074 -0.76922536 26.125
6.7860212 -0.6586349 -0.71697891 83.5
6.8486533 -0.63916963 -0.73556429 43
6.9440317 -0.65528661 -0.75993663 61.099998
7.0307322 -0.6795966 -0.75508726 6.5999999
7.6963096 -0.69258034 -0.73576379 66
7.7526288 -0.64477509 -0.72181743 54.5
7.8462291 -0.67294866 -0.73997712 58.833332
7.9349728 -0.68723768 -0.7465775 56.666668
8.0486269 -0.6264531 -0.723921 101.5
8.1429157 -0.66005021 -0.74100852 99.888885
8.2273979 -0.67441171 -0.74705291 69.75
10.318995 -0.6434688 -0.79092348 6
-2.9544363 -0.55576098 -0.7475158 72.5
-2.5217211 -0.53655267 -0.74772149 84
-2.427012 -0.50984871 -0.78964955 158
-2.3380659 -0.54218769 -0.74375415 129
-1.7341821 -0.59001285 -0.70036626 2
-1.5551867 -0.57777846 -0.76631677 5.5
-1.4595606 -0.55487859 -0.71996027 2.5
-1.3926184 -0.53121519 -0.74046075 0
-1.0832164 -0.50448173 -0.79907364 7
-0.98963678 -0.52975714 -0.75822544 13
1.4486398 -0.55652308 -0.75841975 9.75
1.5922127 -0.5726397 -0.77302599 0.5
1.633113 -0.53750378 -0.75260556 15.052631
2.0646703 -0.58775949 -0.73385429 4.8571429
2.2520378 -0.5570628 -0.75319338 3.5
2.5666642 -0.5593276 -0.76321888 35.5
2.6444361 -0.5778507 -0.7709825 87.083336
2.7554371 -0.59036297 -0.76834053 59.666668
2.8478878 -0.58492333 -0.76215577 7.3333335
3.1990132 -0.52588904 -0.74710912 3
4.0757718 -0.58267802 -0.76392281 2
4.1063633 -0.57821351 -0.78078943 5
4.2083492 -0.5770067 -0.79669732 151
6.6818519 -0.50855124 -0.70725226 27
6.7526183 -0.52329808 -0.74770707 20.5
6.8316059 -0.54668188 -0.75441003 24.611111
6.9286962 -0.58428311 -0.79613155 124
7.0337939 -0.586707 -0.75926065 2.5
7.9545126 -0.59842896 -0.70414579 111
8.0169382 -0.59872544 -0.71352452 98
8.1016483 -0.59948087 -0.70914096 93
-2.2119477 -0.40051368 -0.70003176 23
-2.0969961 -0.49338448 -0.76032454 99
-1.48088 -0.47356322 -0.74276417 2
-1.0223291 -0.45400652 -0.74265337 64
1.6711468 -0.48181352 -0.7467677 6.5714288
1.7230672 -0.42915702 -0.75806308 2
1.8902414 -0.42062181 -0.76089174 7
2.074167 -0.42061341 -0.75384378 4.5
2.1637337 -0.48604807 -0.77080381 3.5
2.4484484 -0.43814367 -0.77433425 74
2.5003099 -0.49098775 -0.77647662 61
2.9278772 -0.49168718 -0.71614999 150
3.1699834 -0.45738792 -0.75553596 1.5
3.2119732 -0.4087556 -0.79590648 1
3.3332493 -0.41790998 -0.71157634 4
6.4546704 -0.42387938 -0.71619123 28
6.5683837 -0.43527874 -0.72539252 16.333334
6.6626577 -0.46049014 -0.73435456 20.071428
6.7340531 -0.46186486 -0.74877518 25.266666
6.8173056 -0.48955941 -0.78643411 13
10.915012 -0.40775138 -0.79259712 1
-2.3586345 -0.32892507 -0.7342509 31.6
-2.2103777 -0.32203102 -0.76886797 18
-2.1839015 -0.3474749 -0.70673901 35
-1.0641067 -0.36943957 -0.70907134 68
0.8429718 -0.31643543 -0.70893145 7
0.93973947 -0.38324893 -0.73911071 151
1.7576603 -0.35150209 -0.76420021 1.3333334
1.8619628 -0.34528312 -0.75075084 0.5
1.9597816 -0.30053383 -0.79375678 1
2.3722744 -0.31407762 -0.75161433 56.5
2.6463504 -0.30844966 -0.76360065 27.666666
2.8621337 -0.34587249 -0.72154438 8
2.9490194 -0.33601004 -0.75309759 24.181818
3.1509402 -0.32975614 -0.73517054 0
3.2554901 -0.36589646 -0.75582379 5.4000001
3.3244066 -0.38240638 -0.71534735 5
4.6486635 -0.32969913 -0.78713566 150
6.4659724 -0.34212893 -0.72253799 64.5
6.5514779 -0.34535471 -0.73402566 42.714287
6.6426811 -0.36482888 -0.7494483 58
6.7629285 -0.3562789 -0.78008968 100
6.8038201 -0.3988072 -0.76567793 21
9.5532064 -0.3070378 -0.78324145 1
9.8663597 -0.32215819 -0.77902329 11
10.070126 -0.32360029 -0.7785266 10
10.134019 -0.33930269 -0.78059572 11.333333
10.212102 -0.33534655 -0.79376346 9
10.493995 -0.32126319 -0.76324016 10
10.538637 -0.37049821 -0.79345185 10
10.60985 -0.30697545 -0.7347092 2
10.714059 -0.36394686 -0.78537071 8
10.933374 -0.30852643 -0.75879174 9
11.152724 -0.38398722 -0.76787525 1
-2.3430271 -0.2431445 -0.73591781 27.833334
-2.1757534 -0.24418154 -0.75175607 23.4
-1.0248889 -0.22970326 -0.7002818 151
-0.44116855 -0.2256334 -0.79783034 32
-0.31752428 -0.20989665 -0.78851324 64
-0.049738094 -0.22642462 -0.79248285 2.3333333
0.021777848 -0.20927805 -0.78199852 52.5
0.22124529 -0.2287337 -0.79212165 1
0.86693698 -0.29890004 -0.70644492 11
1.5556328 -0.24769966 -0.77282631 1.5
1.6385059 -0.27422604 -0.73679554 7.25
1.7541618 -0.26788494 -0.75697893 10.4
1.8199095 -0.25907198 -0.74613035 4.4000001
1.9161793 -0.29353398 -0.78868479 1
2.3688455 -0.2291521 -0.73999119 20
2.5712428 -0.22155015 -0.75194573 3.25
2.6647282 -0.25036758 -0.73320073 42
2.9615052 -0.25192395 -0.78517705 17
3.105305 -0.20177485 -0.79709303 26
3.4553866 -0.20911774 -0.79658729 16.6
3.7603569 -0.22236945 -0.76046973 34.166668
3.8375232 -0.2179486 -0.77493912 23
3.9287269 -0.21158004 -0.78405166 23.333334
4.0472593 -0.20790119 -0.78677112 18.200001
4.1598673 -0.21468996 -0.77908933 32
4.2311821 -0.20930302 -0.79250383 5.5
4.3518553 -0.21681665 -0.79008466 16.545454
4.4422092 -0.22420232 -0.7758072 38.799999
4.5438318 -0.21476169 -0.79070055 16
4.6411958 -0.22317369 -0.78470588 29.125
4.7419233 -0.2189915 -0.79115289 20.076923
4.8494806 -0.21614014 -0.7868365 17.222221
4.9375129 -0.21616478 -0.78940737 18.0625
5.0388889 -0.22219163 -0.78621954 15.0625
5.1404114 -0.21650006 -0.78229624 18.666666
5.2391825 -0.21441031 -0.7788496 14.277778
5.359221 -0.22476053 -0.78761429 8.7647057
5.4538903 -0.22586028 -0.78978139 8.8571424
5.5545192 -0.22155233 -0.78819299 11.12
5.6520605 -0.22714998 -0.78821474 8.681818
5.7570615 -0.21738355 -0.793311 8
5.8353143 -0.21619374 -0.78735483 16.444445
5.961596 -0.22079554 -0.78405386 14.857142
6.0477176 -0.22273754 -0.78462803 14.307693
6.1624603 -0.22253086 -0.78474015 16.5625
6.2435751 -0.22515099 -0.78903472 15.75
6.350204 -0.22334218 -0.77586883 30.6
6.441133 -0.22660702 -0.76921594 28.045454
6.5563183 -0.22468971 -0.77866286 21.833334
6.6398726 -0.25481674 -0.76860327 20.636364
6.7306571 -0.25623301 -0.78784442 23.125
6.8258896 -0.27261966 -0.79826719 17
8.3392286 -0.21964277 -0.75725073 2
9.0514441 -0.26461011 -0.78423178 2
9.1289825 -0.20476703 -0.75501442 0
9.3573837 -0.238699 -0.75104308 8.666667
9.4391193 -0.26221716 -0.77784556 10
9.536993 -0.26585445 -0.77684546 7.6666665
9.6541662 -0.25304601 -0.74896181 7
9.7464752 -0.22412777 -0.73697633 10
9.8027401 -0.25820735 -0.74190092 11
9.9414902 -0.24548042 -0.73305249 7.3333335
10.055842 -0.26387712 -0.73984081 10.333333
10.134131 -0.27381209 -0.76023996 8.5
10.432413 -0.23836932 -0.71753436 10
10.556694 -0.21422243 -0.71732134 10
10.648557 -0.27764732 -0.74962294 9
10.870669 -0.27436411 -0.74955255 7
10.912359 -0.26248711 -0.71062309 0.5
11.012491 -0.24174646 -0.7277205 9
-2.4403679 -0.13743794 -0.75174123 21.5
-2.370295 -0.16983646 -0.77139992 31.5
-2.2468085 -0.12213296 -0.72690356 20
-2.1826732 -0.1672736 -0.75037181 26
-1.039194 -0.12757964 -0.77429247 42.333332
-0.95744872 -0.15615356 -0.77608323 28.333334
-0.82507467 -0.10837905 -0.79955268 7
-0.72500688 -0.11936542 -0.7855134 37
-0.65531939 -0.13319315 -0.77974236 16.200001
-0.53379875 -0.15674964 -0.77201885 47.375
-0.47873253 -0.15030073 -0.75583118 28.142857
-0.34605733 -0.1435238 -0.74929571 58.25
-0.25514996 -0.14005329 -0.74451101 37.733334
-0.14554091 -0.13160925 -0.77078837 35.25
-0.045440339 -0.13586983 -0.76066864 30.461538
0.038942996 -0.14343774 -0.77003235 41.81818
0.16315322 -0.14341216 -0.75785488 14.789474
0.25871852 -0.12308398 -0.77616829 36
0.35158104 -0.10177815 -0.76338136 55
0.45210442 -0.11161441 -0.79034525 18.333334
0.55400431 -0.11176524 -0.78978509 22.200001
0.66621697 -0.12013023 -0.7804991 35.400002
0.72057635 -0.1136523 -0.79347396 12.75
0.8850891 -0.12453153 -0.78161901 18
0.93433958 -0.13946696 -0.77961046 5
1.0208272 -0.10733903 -0.79780316 19
1.163968 -0.11790731 -0.79197675 6.4000001
1.2498169 -0.11246622 -0.79023707 19.5
1.3590686 -0.11452997 -0.78381628 21.285715
1.4487783 -0.13119891 -0.78224307 16.857143
1.5409168 -0.11613917 -0.78792065 16.4
1.6445862 -0.12492278 -0.78189349 18.666666
1.7411225 -0.12048626 -0.7849586 15.5
1.846251 -0.12527718 -0.78376728 20.083334
1.9575945 -0.13201986 -0.78253609 19.294117
2.0624158 -0.13942845 -0.78367078 10.157895
2.1521878 -0.13815215 -0.77685314 18.85
2.2557302 -0.13517633 -0.78050429 12.533334
2.3548625 -0.1399373 -0.77206272 12.857142
2.4558015 -0.13983373 -0.76854593 19.181818
2.5558116 -0.13883138 -0.75579703 17.391304
2.6402049 -0.13973102 -0.7658056 20.529411
2.7482071 -0.14144662 -0.77758878 15
2.8426719 -0.13238445 -0.778409 17.549999
2.9593496 -0.14429097 -0.77999485 22.375
3.04915 -0.13519292 -0.77164203 16.236841
3.1459143 -0.14101063 -0.77620435 21.290323
3.2334926 -0.1447497 -0.77709174 21.066668
3.3495481 -0.14506705 -0.77072477 18.941177
3.4614034 -0.14581345 -0.76972353 16.448277
3.5558705 -0.14266419 -0.77016157 22.633333
3.6421654 -0.14732139 -0.76856744 17.086956
3.7445853 -0.14018261 -0.76553696 17.914286
3.8497169 -0.14530732 -0.76462549 19.270834
3.9472773 -0.14362174 -0.76317966 15.092308
4.0550504 -0.14779188 -0.76436013 14.022223
4.1475167 -0.14870408 -0.76232237 14.489362
4.2555103 -0.14787707 -0.765315 11.16129
4.3490458 -0.15190119 -0.76237023 13.46
4.4524412 -0.1475295 -0.75990599 10.538462
4.5437584 -0.1483904 -0.75818449 14.281691
4.656146 -0.15075049 -0.75508088 16.047619
4.7481818 -0.14342323 -0.75421667 13.942857
4.8518977 -0.15245466 -0.75637662 15.1
4.9496512 -0.15010166 -0.75436234 15.916667
5.0502834 -0.15235679 -0.75736874 10.625
5.1367149 -0.16089348 -0.75211382 11.710526
5.258328 -0.16788061 -0.753784 8.75
5.3527551 -0.15312286 -0.75121814 9.166667
5.4460073 -0.15426911 -0.75828874 8.139535
5.5465417 -0.1741509 -0.77116358 8.636364
5.6458707 -0.15917905 -0.75861108 11.3125
5.7489548 -0.13867502 -0.74554622 10.026316
5.8495378 -0.15966083 -0.75652772 11.826087
5.9452133 -0.16459268 -0.75667995 13.159091
6.0479469 -0.15934415 -0.75084758 12.32258
6.1522312 -0.15871975 -0.74791831 16.962963
6.2516103 -0.1539748 -0.74160463 20.133333
6.3543305 -0.14483914 -0.73357874 21.894737
6.4476652 -0.15025304 -0.73894995 19.133333
6.5488968 -0.17225499 -0.74449736 21.833334
7.351603 -0.1581248 -0.71069312 2
8.3922319 -0.19955926 -0.74052167 4
8.7261286 -0.19910915 -0.74885243 1
9.1967306 -0.16000107 -0.70440149 0
9.2576056 -0.18685989 -0.71663058 0
9.5435572 -0.18311881 -0.73463392 10.5
9.6487103 -0.15044793 -0.71036589 10
9.8475294 -0.19967978 -0.73178661 9
9.9567566 -0.1756199 -0.71831137 9
10.864465 -0.18881838 -0.7014299 8
10.966565 -0.19856234 -0.7042073 8
-2.4413455 -0.044543464 -0.72818309 20
-2.3398185 -0.046655055 -0.71662831 9.1999998
-2.2712674 -0.056753814 -0.75709957 17
-2.1811862 -0.026678305 -0.77878207 17.200001
-2.058502 -0.04443207 -0.77506876 8.666667
-1.9541006 -0.036037717 -0.78527379 26
-1.7193732 -0.025117846 -0.77787268 27
-1.643896 -0.024653867 -0.79090786 17.333334
-1.5300308 -0.029238619 -0.78261894 22.666666
-1.4399955 -0.031583801 -0.78811204 21.142857
-1.36765 -0.029009685 -0.78056693 20.200001
-1.2255639 -0.032509916 -0.78450644 10.75
-1.1404101 -0.030592451 -0.77287811 18.714285
-1.038487 -0.039945461 -0.77327949 17.388889
-0.92578858 -0.037212167 -0.77283669 15.666667
-0.85992014 -0.037977498 -0.77840799 7.5
-0.74706203 -0.054447863 -0.77160865 13.769231
-0.66104615 -0.054228041 -0.74319446 27.571428
-0.53319091 -0.055929858 -0.72322714 29
-0.44837746 -0.056730177 -0.70595217 82
-0.3030268 -0.084735617 -0.7162739 33.5
-0.24484284 -0.047053318 -0.71621341 30.111111
-0.14841093 -0.058744781 -0.72967911 22.555555
-0.034868672 -0.064075127 -0.73886257 13.692307
0.052208833 -0.05261644 -0.73877996 43.222221
0.14650194 -0.058716547 -0.73714095 20.947369
0.26987034 -0.050044909 -0.74196434 32.666668
0.3741402 -0.040287297 -0.74775916 42.875
0.44569838 -0.053560138 -0.75171113 29.923077
0.54667217 -0.053463314 -0.75837511 21.666666
0.65209419 -0.057725448 -0.75523484 24.761906
0.7297467 -0.043425135 -0.74868762 27.200001
0.87926871 -0.056054574 -0.7533744 14.733334
0.94076467 -0.051099878 -0.75183332 17.125
1.0466977 -0.04875968 -0.76426679 10.458333
1.1533047 -0.042962637 -0.76102364 9.1904764
1.2491019 -0.049056828 -0.7542913 18.4375
1.3509132 -0.046492804 -0.75056821 19.565218
1.4443032 -0.051913377 -0.74213272 17.5
1.5357251 -0.045394685 -0.74892449 20.375
1.6568313 -0.055442452 -0.7468437 19.047619
1.737648 -0.054564804 -0.7520681 14.263158
1.8602489 -0.053980999 -0.73795325 21.714285
1.9582657 -0.050489243 -0.73927325 16.227272
2.0474617 -0.063985676 -0.74070948 16.368422
2.1501753 -0.066266067 -0.73840135 15.954545
2.2581172 -0.049136847 -0.72885978 15.043478
2.3458278 -0.043726463 -0.72754419 12.678572
2.4669542 -0.064496629 -0.73589593 14.8
2.5388005 -0.055870101 -0.72890937 22.222221
2.6330729 -0.053360198 -0.73165447 19.294117
2.7553945 -0.062852509 -0.73196429 15.857142
2.8516276 -0.061415836 -0.73171085 18.483871
2.9470198 -0.065232083 -0.73451167 27.299999
3.0502703 -0.057318661 -0.72696692 19.612246
3.1454062 -0.056725267 -0.72513765 21.652174
3.245141 -0.057928879 -0.72751856 14.277778
3.3551812 -0.051083416 -0.72430372 15.76
3.4434724 -0.059243366 -0.72410363 17.615385
3.5602844 -0.061960638 -0.72262013 17.151516
3.645566 -0.063764825 -0.72388041 14.690476
3.7478633 -0.068164326 -0.7270357 13.030303
3.848223 -0.058591165 -0.71781433 17.280001
3.9548628 -0.06696789 -0.72073132 16.25532
4.0381837 -0.06705115 -0.7122308 20
4.1493435 -0.069416694 -0.71523863 15.157895
4.2601466 -0.067599148 -0.7170679 11.857142
4.3491998 -0.079935864 -0.72220165 11.466666
4.4559278 -0.075760596 -0.72421247 12.315789
4.5552626 -0.07204476 -0.71882421 9.7941179
4.6472354 -0.068363763 -0.71396708 11.6875
4.7455263 -0.072593674 -0.71262705 14.55
4.8512902 -0.077614643 -0.71330136 12.5
4.9404306 -0.070590034 -0.71409792 10.3
5.0469799 -0.082589753 -0.71483612 9.8000002
5.1389251 -0.074574828 -0.70171052 11.333333
5.3544793 -0.072970085 -0.71075517 7.375
5.4453268 -0.068770371 -0.71108562 7.4761906
5.5471826 -0.075981639 -0.7171945 7.9583335
5.6456194 -0.084812015 -0.71811378 9.0666666
5.7429686 -0.082200021 -0.71299142 13.6
5.8458323 -0.086190969 -0.71470058 13.727273
5.9341607 -0.08818692 -0.71184558 13
6.3366518 -0.086099446 -0.71108866 20.5
6.4551821 -0.098781697 -0.70159042 23
-2.3137541 0.0048344363 -0.73226619 10.5
-2.2824554 0.041191947 -0.70789003 11
-2.1637058 0.046383303 -0.7455439 18.285715
-2.0460801 0.04966595 -0.73883492 13.75
-1.9585378 0.048278939 -0.73280066 21.888889
-1.8855779 0.027168 -0.73524839 19
-1.7262446 0.063073531 -0.72632742 23.200001
-1.687 0.010711563 -0.76217556 15
-1.5389301 0.04486236 -0.74040723 21.222221
-1.4375588 0.052883547 -0.73591357 23.5625
-1.3496212 0.043727897 -0.74106789 13.857142
-1.2623705 0.056225024 -0.73338246 7.4000001
-1.1690863 0.040607486 -0.73613304 18
-1.0526937 0.046495106 -0.73443198 9.6470585
-0.94547647 0.041404508 -0.7402339 11.357142
-0.8274765 0.052769307 -0.73088425 6.7083335
-0.75283873 0.046362601 -0.73043573 11.52
-0.66252583 0.05451924 -0.72885841 9.625
-0.57065654 0.037829377 -0.70357347 5
-0.45728475 0.010486433 -0.70057368 71
-0.1808838 0.018431986 -0.71865553 28.75
0.071544699 0.021781687 -0.70227671 41
0.15414618 0.0050801206 -0.72202605 49.333332
0.25386691 0.024394058 -0.71535397 12
0.35268503 0.023230553 -0.71039116 39.799999
0.42765409 0.020638175 -0.71192813 43.25
0.53473526 0.012307703 -0.70740247 26
0.65766007 0.033587597 -0.72147042 33.75
0.7318452 0.029898807 -0.71692514 21
0.8735112 0.027596744 -0.71172553 20.5
0.93879187 0.036482915 -0.71409225 15.4
1.0562526 0.033247016 -0.71738458 7.4117646
1.1418986 0.018566929 -0.72141933 14
1.2357483 0.027045025 -0.71247607 21.777779
1.3453702 0.019734465 -0.71500427 17.166666
1.4459182 0.021475246 -0.71460885 17.181818
1.5483521 0.024598315 -0.71329182 27.333334
1.6645918 0.015251093 -0.71403009 16
1.7325283 0.012460024 -0.71497566 20.833334
1.868008 0.011710743 -0.70944792 22.333334
1.9460608 0.025779987 -0.71236998 9.666667
2.1196756 0.008711041 -0.70280498 14.333333
2.3465414 0.02015431 -0.70451504 19
2.4628408 0.0043154289 -0.70500398 21
2.5226598 0.011314983 -0.70794606 5
2.6342974 0.0053238804 -0.71408701 16
3.1298051 0.0085081663 -0.70015389 9
3.2636645 0.00015594665 -0.7008394 3
-2.0501418 0.12119886 -0.70741814 10
-1.934358 0.12121523 -0.70754421 16
-1.8983549 0.13918014 -0.70041114 12
-1.6652902 0.11155649 -0.70875031 11
-1.50027 0.10277814 -0.70805871 17
-1.4318193 0.11897881 -0.70183283 16.333334
-1.2742041 0.10812003 -0.70974129 5.6666665
-1.1771247 0.10305631 -0.70319557 7
-0.96935779 0.117138 -0.7066735 4
-0.86586136 0.11099844 -0.70310056 6.5
-0.75411606 0.10863116 -0.70475262 6.25
-0.6470235 0.11478764 -0.71004492 6
16.700373 -5.6460671 -0.66772473 32
10.434245 -5.5001631 -0.69545203 42
14.615468 -5.5345144 -0.66347182 30
16.317642 -5.5482783 -0.61654669 32
16.634108 -5.5319986 -0.60983348 59
9.7530422 -5.4351659 -0.67109388 41
10.270512 -5.4518528 -0.67603785 32
10.648885 -5.4537063 -0.67744094 41
11.607026 -5.4872918 -0.68944687 28
12.518883 -5.4240069 -0.62900162 40
12.711173 -5.481915 -0.66808015 30
16.569159 -5.4042487 -0.64340639 56.666668
10.542745 -5.3818326 -0.63234389 38
10.73125 -5.3371749 -0.6021874 41
11.681397 -5.3450875 -0.6073063 27
12.638521 -5.3766022 -0.60511267 38
12.89159 -5.3706293 -0.60544562 27
16.586687 -5.3362241 -0.62040955 42
2.6191745 -5.2021027 -0.6644972 36
2.7760687 -5.2509232 -0.68213689 36
8.8734283 -5.2109208 -0.60618865 22
16.4806 -5.2100234 -0.68397188 28
2.3256357 -5.125494 -0.68253791 42
2.4580226 -5.1451497 -0.62831068 48
2.6228871 -5.1683612 -0.63897604 36
3.5373583 -5.1762438 -0.62689668 9
3.705091 -5.1661873 -0.61850935 7
2.1821985 -5.0300636 -0.65199459 46
2.2099538 -5.0594306 -0.68648064 48
16.196598 -5.0529084 -0.60652834 32
2.0223904 -4.9653592 -0.63069463 41
15.987884 -4.9122853 -0.60352868 37
16.028128 -4.9626617 -0.62915134 33
16.125296 -4.9794846 -0.66719127 34
1.6796838 -4.751276 -0.65721834 22
8.3135948 -4.7996507 -0.62567598 23
15.745992 -4.7247267 -0.64424765 32
15.816145 -4.7757354 -0.65137893 34
1.5033408 -4.6518116 -0.61109018 23
15.531935 -4.6124926 -0.63173491 36
7.8968387 -4.512795 -0.61887926 37
7.9014106 -4.5051432 -0.64343119 36
1.2314068 -4.4215846 -0.68158376 24
1.3040242 -4.4467273 -0.68897951 19
1.0371518 -4.311657 -0.6247521 21.5
1.1760348 -4.3682313 -0.64915258 19
7.5575104 -4.2617521 -0.64575124 38
15.037981 -4.2231569 -0.67503619 32
14.934224 -4.1402512 -0.68331897 33
7.2634311 -4.044651 -0.65595591 39
14.859686 -4.0997863 -0.66393709 36
14.542827 -3.905602 -0.62442356 32
0.52623075 -3.8176508 -0.68809456 43
1.1135718 -3.8942931 -0.68796194 3
6.9574099 -3.8467536 -0.61133581 33
7.031507 -3.8799887 -0.66669559 39
14.400954 -3.8062007 -0.62939894 33
0.43029031 -3.752604 -0.67390507 44
0.60629207 -3.7567708 -0.68076122 1
5.2820477 -3.7225873 -0.67782789 23
6.820116 -3.7226636 -0.67456198 44.666668
14.325823 -3.7308874 -0.68971616 34
0.24939646 -3.6375055 -0.64958012 43
0.33834636 -3.6915576 -0.66072905 43
1.3030194 -3.6508322 -0.66255128 30
0.078499936 -3.5264099 -0.62726301 47
0.16244189 -3.5884519 -0.63945073 47
1.2814783 -3.5994744 -0.69147116 89
1.3614548 -3.5410216 -0.64892691 28
5.3680725 -3.547205 -0.65533805 22.5
6.633338 -3.5807495 -0.67914629 70.5
14.039961 -3.5665517 -0.69950932 49
-0.19507053 -3.4539504 -0.64570498 45
-0.028426312 -3.4485595 -0.64168626 42.333332
1.38457 -3.4882109 -0.66709036 22
5.454361 -3.4040992 -0.64121878 22
6.2879443 -3.4675572 -0.65597028 16
-0.15984818 -3.3640947 -0.63727421 40.5
-0.084373496 -3.3919635 -0.68680936 41
1.4569662 -3.3294802 -0.66480362 68
13.790445 -3.3985114 -0.61762154 32
-0.35173303 -3.2368276 -0.64738977 41
-0.23928887 -3.2988865 -0.6635527 44
1.4937239 -3.2383604 -0.66510046 63
1.5513062 -3.2276101 -0.63907772 11
-0.53213954 -3.1367171 -0.62512612 42
-0.46117312 -3.1727633 -0.63321567 40
1.5497582 -3.15943 -0.66596425 58
5.6240883 -3.1000097 -0.6804651 28
5.887465 -3.103195 -0.64127713 118
5.983345 -3.1503694 -0.67532039 126.5
6.0005136 -3.1154425 -0.64838445 119
11.65747 -3.1326904 -0.67557764 7.5
12.193312 -3.1276011 -0.65471244 33.5
12.337895 -3.1113181 -0.609465 33
-0.63708055 -3.0746517 -0.61245644 42
0.88702381 -3.0530057 -0.69949073 10
1.5880213 -3.0650601 -0.63290882 98
1.6435549 -3.0328131 -0.64294112 14
5.6200476 -3.0895941 -0.68802333 28
5.7435431 -3.0328944 -0.62445801 76
5.8888755 -3.0749574 -0.66590059 96.5
5.9077992 -3.0781491 -0.62061775 44
12.256512 -3.0448234 -0.65814203 77.333336
-0.76479489 -2.9078629 -0.67755777 54
1.653644 -2.9451833 -0.62083697 109
1.7159786 -2.9011436 -0.60409909 14
5.6361198 -2.9692764 -0.63804626 52.5
5.7690973 -2.9549146 -0.67503238 40.400002
5.8131618 -2.9589696 -0.68307912 59.5
12.286476 -2.962676 -0.6783123 92.5
12.319715 -2.9465499 -0.62743968 72
-0.91288322 -2.8245738 -0.65283483 26
-0.85268068 -2.8523767 -0.6638658 41
1.7297633 -2.8271923 -0.64712727 37.75
12.36438 -2.8401763 -0.65080303 61.5
12.517195 -2.861438 -0.62823933 3
-1.0349501 -2.7328775 -0.65877819 49.75
-0.94802147 -2.7732778 -0.67828715 23.25
-0.86489296 -2.7899158 -0.69924903 5
1.6258804 -2.7996519 -0.66774511 8
1.7744143 -2.7665019 -0.6176374 42
1.8200414 -2.7502441 -0.60590106 7.5
11.761603 -2.7107503 -0.63717258 22
12.388815 -2.758189 -0.6651237 67.25
-1.2366546 -2.6134663 -0.65262538 29.666666
-1.1601152 -2.6533365 -0.65789396 42.333332
-1.0794411 -2.6960897 -0.66219914 43.5
1.5990305 -2.6979914 -0.66888011 110
1.639979 -2.640059 -0.63786769 128
1.8433704 -2.6385922 -0.62523711 14
1.9037875 -2.6426935 -0.64656985 9
4.7967019 -2.6203814 -0.60080695 5
4.8449469 -2.618154 -0.64306259 6.75
4.947763 -2.6330378 -0.64595246 2.75
12.425738 -2.6991181 -0.66989052 9
12.706725 -2.6467619 -0.66823936 86
-1.3311697 -2.5439138 -0.64732802 42.75
-1.2620349 -2.5554333 -0.68097705 50.333332
1.675212 -2.5318429 -0.69843888 6
1.8814372 -2.5521007 -0.67193288 12
1.9078122 -2.5701604 -0.66386676 57.75
4.865983 -2.5390294 -0.65906554 24.25
4.9427614 -2.575496 -0.66103458 2.1428571
5.0225472 -2.5373671 -0.63311714 18.142857
12.571583 -2.5104437 -0.66868162 52
12.622215 -2.5522766 -0.64163893 31
12.713084 -2.587254 -0.6948837 46
-1.5266703 -2.4118423 -0.62161493 47
-1.4488039 -2.4461892 -0.65188587 44.583332
-1.347453 -2.4746737 -0.68159539 55.5
-1.2533002 -2.4823232 -0.6930182 82
-1.1657683 -2.4318254 -0.69974661 64
1.9552304 -2.4574535 -0.64431852 68.166664
4.8724794 -2.4757786 -0.64652729 95.400002
4.9510155 -2.4579759 -0.65795249 14.222222
5.0482154 -2.4653423 -0.64336032 46.727272
10.080179 -2.4040384 -0.60198277 2
10.161449 -2.4146841 -0.63348585 46.666668
10.253565 -2.4305038 -0.6538443 53.400002
10.343513 -2.4560044 -0.66701335 63.727272
10.422436 -2.4784951 -0.63682699 52.25
12.452312 -2.4286408 -0.65618718 55
-1.6368814 -2.3239574 -0.62234062 40.666668
-1.5475266 -2.3687553 -0.65299553 45.42857
-1.2174135 -2.3736463 -0.66725111 44
-1.1535084 -2.3800449 -0.6854862 63
1.7513955 -2.3291891 -0.6708746 24
1.8017954 -2.307838 -0.65077233 119
1.9811609 -2.3486514 -0.62937355 11
2.0274451 -2.3436232 -0.6527226 82
4.3849826 -2.3034024 -0.6741119 1
4.416678 -2.3147883 -0.69171047 0
4.889853 -2.3998008 -0.69738877 14
5.0644546 -2.3914633 -0.6916436 13
9.7596416 -2.305609 -0.60522491 65
9.8670778 -2.3157516 -0.62425154 42
9.9564228 -2.3194425 -0.66574579 27.461538
10.045718 -2.3642161 -0.64649761 25.818182
10.137817 -2.3750975 -0.6837033 17.5
10.669368 -2.3175871 -0.67643189 0
10.73538 -2.3364332 -0.68567467 0
10.802479 -2.3472011 -0.69634044 5
11.648219 -2.3327909 -0.69076204 78
11.853968 -2.3420634 -0.67141187 5
11.979624 -2.3371022 -0.66067916 6
12.046287 -2.3641675 -0.67532963 6
12.275927 -2.3152497 -0.6467135 49.75
12.345199 -2.357383 -0.65655249 73.611115
12.418903 -2.3818314 -0.68696851 77.5
-1.809894 -2.2018914 -0.69516367 37
-1.7417467 -2.2412782 -0.63317251 18.4
-1.6724044 -2.2723265 -0.65145499 45
-1.5607411 -2.2481732 -0.63472635 134
-1.4315078 -2.2567334 -0.66351902 150
-1.3570333 -2.2166748 -0.67103577 66
-1.2748734 -2.2306476 -0.67967635 27
-1.1361586 -2.2156649 -0.64856762 39
-1.0555499 -2.24721 -0.66686833 32.599998
-0.97682285 -2.2946157 -0.69250631 47
1.7953279 -2.2277026 -0.66265386 3
1.8314625 -2.237227 -0.65346479 85
2.0757847 -2.2617359 -0.64238274 83.75
2.1122861 -2.2039788 -0.64025545 85
4.2671704 -2.2378731 -0.64800131 0.2
4.3475256 -2.2529213 -0.66276985 0.2857143
4.4279218 -2.2675672 -0.68048835 1
9.4915771 -2.2032747 -0.60086995 56
9.5590715 -2.2089014 -0.63336408 29.200001
9.6566591 -2.2247736 -0.65532702 17.921053
9.7506332 -2.248632 -0.66551596 22.81579
9.8476381 -2.2740812 -0.67821139 26.041666
9.9289207 -2.2939324 -0.69156539 14.75
10.642634 -2.2396159 -0.67634791 27.5
11.693512 -2.2403648 -0.69693208 10
11.73505 -2.2423694 -0.67052191 85
12.097281 -2.2064869 -0.60502267 87.5
12.154284 -2.2291334 -0.63751882 77.699997
12.252998 -2.2736557 -0.69055504 71.333336
12.303819 -2.2943296 -0.68458641 14
-2.0392182 -2.1735005 -0.66723609 44.5
-1.8586715 -2.1380284 -0.65458083 47
-1.627582 -2.1759462 -0.68181551 55
-1.443099 -2.1450405 -0.64578879 64.5
-1.3954555 -2.1784239 -0.65470052 122.5
-1.105309 -2.1955161 -0.69104457 55
1.7952628 -2.1959407 -0.67707187 15
1.8642055 -2.1479697 -0.66162229 88.066666
1.9391341 -2.1076529 -0.64707363 59
2.0447302 -2.1310775 -0.68189526 91.5
2.1407335 -2.1390657 -0.64844137 88
4.1386318 -2.1048331 -0.60502708 13.5
4.2688046 -2.1224928 -0.61136705 3
4.3420868 -2.125381 -0.67431676 19
4.4322701 -2.1352015 -0.6818583 9.666667
4.5334382 -2.1235435 -0.68047452 4
9.2753906 -2.1109536 -0.64365113 31.5
9.3531237 -2.1289673 -0.65561336 17.552631
9.4529829 -2.1552212 -0.66765583 17.6
9.5466623 -2.1791363 -0.67242944 20.1875
9.6231518 -2.1940832 -0.68722641 13.875
9.7056217 -2.1230178 -0.63862896 0
9.8298578 -2.1269734 -0.68148875 1
10.61768 -2.1865189 -0.68270689 17
10.78456 -2.1798894 -0.6239869 4
10.881338 -2.137593 -0.69463056 2
11.731925 -2.1321468 -0.69232208 99
11.862273 -2.1369798 -0.62997693 150
12.118222 -2.1768799 -0.67199504 38.57143
-1.9431248 -2.0674901 -0.66545594 39.5
-1.6617912 -2.0058322 -0.69953132 150
1.8784503 -2.0633376 -0.67873615 28.142857
1.9429318 -2.0362766 -0.64478838 57.476189
2.0499411 -2.0347433 -0.67625141 35.875
2.1263118 -2.0415089 -0.64331663 73
4.0705376 -2.0596395 -0.64595127 113
4.1458302 -2.0451064 -0.66594177 36.666668
4.2778401 -2.0462942 -0.64772147 24.333334
4.3470588 -2.0480485 -0.66681433 17.333334
4.4253149 -2.051177 -0.68066669 5.6666665
9.1858015 -2.0557365 -0.65367764 73.428574
9.2587729 -2.0849113 -0.6718055 42.68182
9.3296442 -2.0845947 -0.67628491 20.375
9.7579718 -2.0408731 -0.68140936 0
9.8114243 -2.0310714 -0.66374469 1
10.950583 -2.0850499 -0.66822082 156
11.799132 -2.0001416 -0.62241566 57
11.84211 -2.0363882 -0.62209052 74
-1.7777479 -1.9662291 -0.66871941 117
-1.6841236 -1.9208839 -0.67432177 31
1.8955399 -1.9382664 -0.65620363 2.5
1.978667 -1.9629755 -0.64151925 75.875
2.0519121 -1.9371045 -0.64783269 11.789474
2.149806 -1.9422554 -0.64934123 69.760002
2.2061458 -1.9037105 -0.62103295 126
2.4113669 -1.9314934 -0.6928789 8
2.5921121 -1.9148668 -0.69543469 6
4.1798658 -1.9688772 -0.66592491 89.800003
4.2506981 -1.9662347 -0.65957975 25.90625
4.3497324 -1.9532261 -0.66481996 35.333332
9.7503433 -1.9734379 -0.67228371 0
9.9446259 -1.9769366 -0.62613243 0.5
10.035078 -1.9361067 -0.63192099 8.5
10.20179 -1.9764966 -0.61343813 88
11.697721 -1.9208335 -0.62987387 83.5
11.744517 -1.9389309 -0.6498397 80.285713
11.805429 -1.9757063 -0.63825238 66
-1.9438288 -1.8120067 -0.60468447 3
-1.8418273 -1.8452272 -0.62616855 5.6666665
-1.7837729 -1.8545024 -0.655222 5.75
-1.6353037 -1.8190246 -0.632864 6
1.9976252 -1.8954077 -0.68974626 111.5
2.0435331 -1.8516057 -0.66006756 46.842106
2.1864493 -1.8750309 -0.65470147 94.454544
2.2271383 -1.8357767 -0.64512622 81.235291
2.3081961 -1.8198335 -0.62097049 92.5
9.9830627 -1.8409642 -0.62678659 9
10.053381 -1.8690393 -0.65708607 8
10.181284 -1.8523495 -0.64972943 91
10.210748 -1.8334394 -0.68248832 17
10.798227 -1.8228596 -0.66116315 3
11.231763 -1.8586462 -0.68872154 77.5
11.382016 -1.8809087 -0.69567585 150
11.568366 -1.8262924 -0.66983521 74.400002
11.640507 -1.8620394 -0.66204238 68.625
-2.0591278 -1.7350309 -0.61830312 5
-1.9741675 -1.7608393 -0.65715843 5.3333335
-1.8453679 -1.7533197 -0.64057523 3.3333333
-1.7265733 -1.7728623 -0.6526531 3.5
-0.53087002 -1.7405293 -0.61840093 162
-0.068366192 -1.7520463 -0.64132315 35.285713
2.0762453 -1.7744507 -0.6528728 48.363636
2.1114011 -1.7307745 -0.6201272 62.599998
2.2622604 -1.7506229 -0.64780402 73.931038
2.3354843 -1.7427343 -0.65529388 95.666664
8.3625488 -1.7090364 -0.62422758 57
8.4249468 -1.7119489 -0.61575651 66
9.9620237 -1.7501659 -0.67335057 7.375
10.024184 -1.7607096 -0.6502099 12.333333
10.175958 -1.7672627 -0.62743175 2
10.24937 -1.7406706 -0.6704967 68.666664
10.766141 -1.7477356 -0.64958382 44.5
11.166449 -1.7216073 -0.67877632 152
11.353931 -1.73036 -0.62757099 109
11.452906 -1.7349579 -0.64829892 64.285713
11.524999 -1.7815731 -0.65853631 68.800003
-2.3467779 -1.6093856 -0.61426193 10
-2.2112286 -1.6720191 -0.60479206 5
-2.1147807 -1.6186775 -0.66818529 3
-2.0780301 -1.6634743 -0.65433514 5
-1.9896404 -1.6675783 -0.60467678 1
-0.40092149 -1.6100669 -0.65529615 70
-0.13327427 -1.6161811 -0.66611248 49.5
-0.072758563 -1.6593014 -0.6584776 16
2.1365483 -1.6623911 -0.66050935 63.833332
2.2838445 -1.6768408 -0.66978061 79.071426
2.3288786 -1.6354499 -0.64939761 77.160004
2.435529 -1.6039703 -0.64188969 55.5
8.2692842 -1.6259056 -0.63486344 25.299999
8.3548164 -1.649653 -0.643686 40.097221
8.4325991 -1.651142 -0.65021592 58.313725
9.9773626 -1.6391572 -0.62385654 8.333333
10.045978 -1.6472538 -0.66240424 6.4000001
10.289983 -1.6744282 -0.63432163 5
10.854963 -1.6909598 -0.64532065 152
11.142558 -1.6574311 -0.66117275 85
11.241203 -1.6290827 -0.62856847 15
11.334637 -1.6672201 -0.64121258 47.333332
-2.6039636 -1.5049863 -0.6920734 13
-2.1257179 -1.5264413 -0.61987072 7.1999998
-2.0498912 -1.5459716 -0.64753354 12.142858
-1.8470436 -1.5519716 -0.61562264 9
-0.44427189 -1.5372556 -0.65509188 36.799999
-0.35542303 -1.5242014 -0.63945645 15.823529
-0.25751126 -1.5350156 -0.65384972 31.588236
-0.15407448 -1.5612164 -0.65667915 22.6875
-0.067749068 -1.5441525 -0.67533493 1
2.1821702 -1.5644894 -0.67628813 8.833333
2.2400343 -1.5419331 -0.64693475 15.833333
2.3659339 -1.5543357 -0.6438663 69.216217
2.4528532 -1.536883 -0.64391673 81.599998
2.5532596 -1.5063564 -0.61189502 1
3.4066682 -1.5044667 -0.63066977 4
8.0827904 -1.5071944 -0.61588657 65.5
8.1664352 -1.5312753 -0.63828444 33.068966
8.2463818 -1.5484902 -0.65242571 30.258064
8.3337564 -1.5767807 -0.67031175 22.037037
8.4715853 -1.555266 -0.66760039 68.846153
8.5224009 -1.5407815 -0.62880915 50.375
10.0604 -1.5730559 -0.65266275 8.5
11.065678 -1.5157082 -0.61096066 97
11.14378 -1.5674385 -0.66057825 151
11.263707 -1.5920604 -0.68376935 150
-2.7117739 -1.4395273 -0.6104598 34
-2.6409481 -1.4546068 -0.63334483 150
-2.5492988 -1.4424524 -0.64381945 59.5
-2.2318306 -1.4424143 -0.61079967 11.75
-2.1530492 -1.4543033 -0.65252036 13.25
-2.0626388 -1.4762034 -0.68526691 9
-1.9372292 -1.4425906 -0.63823241 5
-1.8675418 -1.4639543 -0.67004734 5.6666665
-0.93509156 -1.4669302 -0.66279811 150
-0.85070813 -1.409956 -0.62614071 13
-0.60620606 -1.4066992 -0.69029093 8
-0.51467943 -1.4092524 -0.62337744 8
-0.4370327 -1.4426427 -0.65030193 20.266666
-0.35782662 -1.4788295 -0.65462703 23
-0.26213205 -1.4718492 -0.65584409 37.5
-0.14125472 -1.4473944 -0.65388399 6
-0.092406273 -1.4293675 -0.66668701 3
1.4831934 -1.4126323 -0.69972974 32
1.6709566 -1.4110659 -0.67521948 0
1.7440628 -1.427314 -0.69286376 0.80000001
2.2523308 -1.4524105 -0.63963223 9.6000004
2.372478 -1.4704177 -0.66856712 68.714287
2.4467213 -1.4397136 -0.65486771 84.5
2.5437117 -1.4537272 -0.65382308 38.68182
2.6458855 -1.4571596 -0.6514442 130.8
2.7102251 -1.4358287 -0.65095198 2
3.3352447 -1.4207351 -0.63744092 40.200001
3.452379 -1.4420769 -0.6390897 39.485714
3.5234604 -1.4277114 -0.63039774 38.222221
8.0647411 -1.4538325 -0.66293436 42.045456
8.1394472 -1.4653295 -0.6520521 47.083332
8.2155161 -1.4915965 -0.6251961 13
8.494154 -1.4769059 -0.69388425 8
8.5415192 -1.452978 -0.64799917 68.565216
10.090816 -1.4202327 -0.67198777 5
10.138083 -1.4258378 -0.65520298 3
10.425594 -1.4705544 -0.67194027 4.5
10.986975 -1.4504952 -0.60410058 89.5
11.036362 -1.4364337 -0.66756701 17
-2.9083316 -1.3047326 -0.61835158 41
-2.8428173 -1.3354365 -0.63763851 49.5
-2.6842525 -1.38607 -0.61888528 13
-2.5491714 -1.372968 -0.64928329 18.5
-2.4385958 -1.3369123 -0.67149806 54.166668
-2.3753605 -1.3763049 -0.65337986 39
-2.2440195 -1.3543025 -0.64695144 28.222221
-2.17858 -1.3949353 -0.68275845 13
-2.0438714 -1.356517 -0.64434862 3.75
-1.9581838 -1.3833542 -0.67646992 4.5
-1.777971 -1.3108432 -0.65394306 6
-1.6549242 -1.3623807 -0.68076009 15
-1.2332177 -1.3034055 -0.6805355 93
-1.1691772 -1.3294663 -0.68830061 65.666664
-0.85593742 -1.3880271 -0.67503095 76
-0.73472327 -1.360455 -0.63754302 23.666666
-0.64963824 -1.369234 -0.62874287 31
-0.55265975 -1.3531485 -0.66478312 7
